# .PCD v0.7 - Point Cloud Data file format
VERSION 0.7
FIELDS x y z
SIZE 4 4 4
TYPE F F F
COUNT 1 1 1
WIDTH 1566
HEIGHT 1
VIEWPOINT 0 0 0 1 0 0 0
POINTS 1566
DATA ascii
0.11367 -0.11928 0.88414001
0.11523 -0.11935 0.88466001
0.11679 -0.11941 0.88511997
0.11836 -0.11949 0.88568997
0.11989 -0.11952 0.88590002
0.12144 -0.11957 0.88630998
0.12296 -0.11959 0.88647002
0.12452 -0.11965 0.88691998
0.12606999 -0.1197 0.88723999
0.1277 -0.11982 0.88814002
0.12932999 -0.11994 0.88903999
0.13098 -0.12008 0.89006001
-0.039593998 -0.12023 0.90256
-0.038024999 -0.1201 0.90154999
-0.036458001 -0.11996 0.90048999
-0.034885 -0.11978 0.89918
-0.033307001 -0.11958 0.89761001
-0.031720001 -0.11931 0.89565998
-0.030128 -0.11901 0.89333999
-0.028542999 -0.1187 0.89102
-0.026969001 -0.1184 0.88878
-0.025411 -0.11814 0.88683999
-0.023877 -0.11797 0.88555002
-0.022359001 -0.11786 0.88474
-0.020853 -0.1178 0.88429999
-0.019355001 -0.11778 0.88413
-0.017858 -0.11777 0.88404
-0.016362 -0.11776 0.88396001
-0.014866 -0.11774 0.88388002
-0.013373 -0.11776 0.88396001
-0.01188 -0.11777 0.88404
-0.010387 -0.11778 0.88413
-0.0088946 -0.11781 0.88439
-0.0074017998 -0.11785 0.88467002
-0.0059082001 -0.11789 0.88497001
-0.0044152001 -0.11798 0.88559997
-0.0029201999 -0.11806 0.88625002
-0.001423 -0.11815 0.88691002
7.6356999e-05 -0.11818 0.88713002
0.0015768 -0.11823 0.88753003
0.0030773999 -0.11824 0.8876
0.0045789001 -0.11827 0.88779002
0.0060812002 -0.11829 0.88800001
0.0075885002 -0.11839 0.88871002
0.0090972995 -0.11847 0.88933998
0.010615 -0.11863 0.89051002
0.012139 -0.11881 0.8919
0.013678 -0.1206 0.89396
0.013673 -0.11904 0.89359999
0.032125998 -0.12179 0.90271997
0.030588999 -0.12021 0.90240997
0.032063998 -0.12002 0.90099001
0.033539001 -0.11985 0.89968997
0.034982 -0.11959 0.89769
0.036430001 -0.11936 0.89598
0.037888002 -0.11918 0.89464998
0.039360002 -0.11906 0.89372998
0.040835001 -0.11895 0.89292997
0.042319 -0.11888 0.89239001
0.043804001 -0.11882 0.89191002
0.045279 -0.11873 0.89126998
0.046742 -0.11862 0.89045
0.048207 -0.11852 0.8897
0.049674999 -0.11843 0.88905001
0.051127002 -0.11832 0.88817
0.052595999 -0.11824 0.88761997
0.054072998 -0.11819 0.88722998
0.055550002 -0.11814 0.88686001
0.057022002 -0.11809 0.88644999
0.058490999 -0.11803 0.88599002
0.059955999 -0.11796 0.88551003
0.061402 -0.11786 0.88476998
0.062845998 -0.11777 0.88405001
0.064276002 -0.11765 0.88316
0.065732002 -0.11758 0.88266999
0.067195997 -0.11753 0.88229001
0.068701997 -0.11756 0.88247001
0.070225 -0.11761 0.88287002
0.071769997 -0.1177 0.88352001
0.073322996 -0.11779 0.88423002
0.074892998 -0.11791 0.88511997
0.076448001 -0.118 0.8858
0.078013003 -0.1181 0.88656998
0.079585001 -0.11821 0.88738
0.081125997 -0.11827 0.88783002
0.082650997 -0.11831 0.88809001
0.084145002 -0.1183 0.88801003
0.085611001 -0.11825 0.88765001
0.087058 -0.11817 0.88709998
0.088491 -0.11809 0.88643003
0.089881003 -0.11794 0.88536
0.091265 -0.1178 0.88427001
0.092661001 -0.11767 0.88332999
0.094065003 -0.11756 0.88248003
0.095490001 -0.11748 0.88186997
0.096943997 -0.11743 0.88152999
0.098433003 -0.11743 0.88152999
0.099923 -0.11743 0.88152999
0.10141 -0.11743 0.88152999
0.1029 -0.11742 0.88145
0.10441 -0.11745 0.88169003
0.10593 -0.11748 0.88186997
0.10745 -0.11752 0.88214999
0.10899 -0.11757 0.88252997
0.11055 -0.11764 0.88305998
0.11208 -0.11767 0.88335001
0.11362 -0.11772 0.88370001
0.11519 -0.1178 0.88429999
0.11676 -0.11788 0.88485003
0.11835 -0.11798 0.88559997
0.11989 -0.11802 0.88591999
0.12147 -0.1181 0.88652998
0.12301 -0.11813 0.88678002
0.12458 -0.1182 0.88731998
0.12613 -0.11825 0.88762999
0.12774999 -0.11836 0.88852
0.12936001 -0.11846 0.88924998
-0.041179001 -0.11888 0.90386999
-0.039588999 -0.11869 0.90245003
-0.038013998 -0.11853 0.90126997
-0.036442 -0.11838 0.90008003
-0.034860998 -0.11818 0.89855999
-0.033270001 -0.11792 0.89661002
-0.031677999 -0.11764 0.89446002
-0.030087 -0.11733 0.89212
-0.028503999 -0.11703 0.88980001
-0.026935 -0.11675 0.88766998
-0.025387 -0.11653 0.88602
-0.02386 -0.11638 0.88492
-0.022345999 -0.11629 0.88422
-0.020845 -0.11626 0.88396001
-0.019348999 -0.11625 0.88388002
-0.017855 -0.11625 0.88388002
-0.016361 -0.11625 0.88388002
-0.014866 -0.11625 0.88388002
-0.013371 -0.11624 0.88380003
-0.011876 -0.11622 0.88371003
-0.010381 -0.11621 0.88362002
-0.0088884002 -0.11623 0.88378
-0.0073958999 -0.11626 0.88397002
-0.0059039998 -0.11631 0.88433999
-0.0044125002 -0.1164 0.88503999
-0.0029186001 -0.1165 0.88577002
-0.0014224 -0.11659 0.88651001
7.6292999e-05 -0.11663 0.88682002
0.0015763 -0.11669 0.88725001
0.0030765 -0.1167 0.88733
0.0045774998 -0.11672 0.88751
0.0060781999 -0.11673 0.88755
0.0075837998 -0.11681 0.88815999
0.0090909004 -0.11688 0.88871002
0.010606 -0.11702 0.88979
0.012129 -0.11721 0.89118999
0.013663 -0.11744 0.89297003
0.015214 -0.11928 0.89538002
0.015207 -0.1177 0.89494997
0.029103 -0.12038 0.90363002
0.027574999 -0.11884 0.90362
0.029061999 -0.11868 0.90236002
0.030532001 -0.11846 0.90074003
0.031985 -0.11821 0.89876997
0.033443 -0.11799 0.89713001
0.034878999 -0.11772 0.89506
0.036327999 -0.11751 0.89346999
0.037790999 -0.11736 0.89235997
0.039267 -0.11727 0.89161998
0.040747002 -0.11718 0.89100999
0.042231001 -0.11712 0.89055002
0.043714002 -0.11706 0.89007998
0.045189999 -0.11699 0.88951999
0.046650998 -0.11688 0.88871998
0.048117999 -0.1168 0.88805997
0.049587 -0.11672 0.88748002
0.051036999 -0.1166 0.88659
0.052498002 -0.11652 0.88595998
0.053971 -0.11647 0.88555998
0.055445999 -0.11642 0.88520002
0.056915 -0.11637 0.88477999
0.058382001 -0.11631 0.88435
0.059845001 -0.11625 0.88387001
0.061294001 -0.11616 0.88321
0.062735997 -0.11607 0.88249999
0.064165004 -0.11595 0.88164002
0.065632999 -0.11591 0.88133001
0.067100003 -0.11587 0.88103998
0.068598002 -0.11589 0.88113999
0.070110999 -0.11593 0.88143998
0.071644999 -0.116 0.88196999
0.073179998 -0.11607 0.88251001
0.074745998 -0.11618 0.88338
0.076312996 -0.11629 0.88423002
0.077891998 -0.11642 0.88519001
0.079487003 -0.11656 0.88629001
0.081051998 -0.11666 0.88701999
0.082594 -0.11672 0.88747001
0.084101997 -0.11673 0.88756001
0.085584 -0.11671 0.88736999
0.087030001 -0.11663 0.88681
0.088454999 -0.11654 0.88607001
0.089842997 -0.11639 0.88498002
0.091224998 -0.11625 0.88388002
0.092620999 -0.11612 0.88293999
0.094035998 -0.11603 0.88221997
0.095472001 -0.11596 0.88169998
0.096924998 -0.11592 0.88135999
0.098403998 -0.1159 0.88126999
0.099893004 -0.1159 0.88125002
0.10137 -0.11589 0.88119
0.10286 -0.11588 0.88111001
0.10436 -0.1159 0.88126999
0.10587 -0.11592 0.88142002
0.10738 -0.11595 0.88160998
0.10892 -0.116 0.88196999
0.11048 -0.11607 0.88251001
0.11203 -0.11613 0.88297999
0.11357 -0.11618 0.88335001
0.11515 -0.11627 0.88405001
0.11673 -0.11635 0.88467997
0.11835 -0.11647 0.88559997
0.11992 -0.11654 0.88611001
0.12152 -0.11664 0.88690001
0.12308 -0.1167 0.88734001
0.12467 -0.11678 0.88796002
0.12622 -0.11683 0.88827002
0.12785999 -0.11695 0.88924003
0.12948 -0.11706 0.89004999
-0.047541998 -0.11951 0.90864998
-0.049102001 -0.11956 0.90908998
-0.049098998 -0.11802 0.90906
-0.047540002 -0.11796 0.90863001
-0.045970999 -0.11942 0.90797001
-0.045965999 -0.11786 0.90786999
-0.044374 -0.11925 0.90671003
-0.044367 -0.11769 0.90657002
-0.042773001 -0.11906 0.90525001
-0.042766001 -0.11751 0.90511
-0.041175 -0.11733 0.90379
-0.039583001 -0.11714 0.90232003
-0.038001001 -0.11697 0.90096998
-0.036421999 -0.11679 0.89960003
-0.034832001 -0.11656 0.89780998
-0.033238001 -0.11629 0.89576
-0.031640999 -0.11599 0.89342999
-0.030049 -0.11567 0.89100999
-0.028471 -0.11538 0.88876998
-0.026907001 -0.11512 0.88674998
-0.025366999 -0.11493 0.88529003
-0.023848001 -0.11483 0.88448
-0.022342 -0.11477 0.88404
-0.020842999 -0.11475 0.88388002
-0.019347001 -0.11474 0.88380003
-0.017852999 -0.11474 0.88379002
-0.016359 -0.11474 0.88379002
-0.014863 -0.11473 0.88371003
-0.013367 -0.11471 0.88353997
-0.011872 -0.11469 0.88344002
-0.010376 -0.11467 0.88325
-0.0088830004 -0.11467 0.88323998
-0.0073913001 -0.11469 0.88341999
-0.0059002 -0.11474 0.88378
-0.0044093002 -0.11482 0.88440001
-0.0029165 -0.11491 0.88511997
-0.0014215 -0.11502 0.88595003
7.6281001e-05 -0.11506 0.88628
0.0015752 -0.11511 0.88664001
0.0030745999 -0.11513 0.88678998
0.0045746001 -0.11515 0.88695002
0.0060736998 -0.11514 0.88690001
0.0075776 -0.11521 0.88744003
0.0090843001 -0.11529 0.88805997
0.010598 -0.11543 0.88914001
0.012119 -0.1156 0.89046001
0.013652 -0.11583 0.89222997
0.015197 -0.11611 0.89437002
0.016755 -0.11795 0.89683002
0.016747 -0.11638 0.89642
0.018301999 -0.11815 0.89833999
0.018299 -0.11661 0.89822
0.019855 -0.11836 0.89991999
0.019859999 -0.11686 0.90015
0.021415999 -0.11858 0.9016
0.021422001 -0.11708 0.90183002
0.022969 -0.11872 0.90271002
0.02297 -0.1172 0.90275002
0.024521001 -0.11885 0.90368003
0.024514001 -0.11728 0.90341002
0.026055001 -0.11888 0.90390003
0.026036 -0.11726 0.90322
0.027535999 -0.11715 0.90235001
0.02901 -0.11694 0.90074003
0.030468 -0.11669 0.89884001
0.031909999 -0.11641 0.89665997
0.033351999 -0.11615 0.89468002
0.034789 -0.1159 0.89274001
0.036242001 -0.11572 0.89134997
0.03771 -0.1156 0.89043999
0.039188001 -0.11552 0.88981003
0.040670998 -0.11546 0.88936001
0.042153001 -0.1154 0.88889998
0.043632999 -0.11534 0.88844001
0.045107 -0.11527 0.88788998
0.046571001 -0.11518 0.88717997
0.048030999 -0.11508 0.88643998
0.049497001 -0.11501 0.88586003
0.050946999 -0.1149 0.88503999
0.052406002 -0.11482 0.88441002
0.053877998 -0.11477 0.88402998
0.055355001 -0.11473 0.88375002
0.056821998 -0.11468 0.88332999
0.058286 -0.11462 0.88288999
0.059746001 -0.11456 0.88240999
0.061193999 -0.11448 0.88177001
0.062634997 -0.11438 0.88107002
0.064074002 -0.11429 0.88037997
0.065539002 -0.11425 0.88006997
0.067005999 -0.11422 0.87980002
0.068494 -0.11422 0.87980998
0.069998004 -0.11425 0.88001001
0.071516 -0.1143 0.88037997
0.073027 -0.11433 0.88066
0.074574001 -0.11442 0.88134003
0.076141 -0.11454 0.88224
0.077724002 -0.11467 0.88328999
0.079341002 -0.11485 0.88466001
0.080936 -0.11499 0.88575
0.082509004 -0.1151 0.88656002
0.084031999 -0.11513 0.88682002
0.085530996 -0.11513 0.88681
0.086975999 -0.11506 0.88626999
0.088400997 -0.11496 0.88552999
0.089786001 -0.11482 0.88442999
0.091177002 -0.11469 0.88340998
0.092582002 -0.11458 0.88257003
0.094007999 -0.1145 0.88195002
0.095453002 -0.11444 0.88152999
0.096905001 -0.1144 0.88117999
0.098371997 -0.11437 0.88098001
0.099849001 -0.11436 0.88086998
0.10132 -0.11434 0.88072997
0.1028 -0.11433 0.88066
0.1043 -0.11434 0.88072997
0.10581 -0.11436 0.88086998
0.10732 -0.11438 0.88106
0.10885 -0.11443 0.88142997
0.11041 -0.1145 0.88196999
0.11197 -0.11457 0.88251001
0.11352 -0.11463 0.88297999
0.11511 -0.11472 0.88369
0.1167 -0.11482 0.88442999
0.11834 -0.11496 0.88551003
0.11994 -0.11506 0.88626999
0.12157 -0.11519 0.88725001
0.12318 -0.11529 0.88804001
0.1248 -0.11539 0.88884997
0.12636 -0.11545 0.88925999
0.12801 -0.11559 0.89033002
0.12964 -0.11569 0.89115
-0.050662 -0.11654 0.90951997
-0.049098998 -0.11648 0.90904999
-0.047538999 -0.11642 0.90860999
-0.045961998 -0.11632 0.90780002
-0.044362999 -0.11615 0.90647
-0.042766001 -0.11597 0.90511
-0.041173998 -0.1158 0.90376002
-0.039577 -0.1156 0.90219003
-0.037981998 -0.11538 0.90052998
-0.036394998 -0.11518 0.89892
-0.034798998 -0.11493 0.89695001
-0.033202998 -0.11465 0.89481997
-0.031605002 -0.11434 0.89241999
-0.030021001 -0.11406 0.89016002
-0.028447 -0.11378 0.88801998
-0.02689 -0.11355 0.88619
-0.025356 -0.11338 0.88493001
-0.023843 -0.1133 0.88429999
-0.02234 -0.11326 0.88396001
-0.020841001 -0.11324 0.88380003
-0.019343 -0.11322 0.88362002
-0.017848 -0.11321 0.88352001
-0.016352 -0.11319 0.88343
-0.014856 -0.11317 0.88327003
-0.01336 -0.11315 0.88309997
-0.011866 -0.11314 0.88297999
-0.010371 -0.11311 0.88277
-0.0088772997 -0.1131 0.88268
-0.0073866001 -0.11312 0.88284999
-0.0058966 -0.11317 0.88322997
-0.0044061998 -0.11324 0.88378
-0.0029142001 -0.11332 0.88441998
-0.0014205 -0.11344 0.88533002
7.6215001e-05 -0.11348 0.88564998
0.0015739 -0.11351 0.88593
0.0030722001 -0.11353 0.88607001
0.0045707999 -0.11355 0.88621002
0.0060680001 -0.11353 0.88607001
0.0075698001 -0.11359 0.88652003
0.0090757003 -0.11368 0.88722998
0.010588 -0.11381 0.88823003
0.012107 -0.11397 0.88953
0.013639 -0.11421 0.89137
0.015183 -0.11449 0.89358002
0.016734 -0.11477 0.89573997
0.018289 -0.11502 0.89771998
0.019848 -0.11526 0.89958
0.021404 -0.11545 0.90105999
0.022947 -0.11555 0.90184999
0.024482001 -0.1156 0.90223998
0.025993999 -0.11555 0.90179002
0.027484 -0.1154 0.90065002
0.028945001 -0.11515 0.89873999
0.03039 -0.11487 0.89655
0.031823002 -0.11458 0.89421999
0.033261999 -0.11432 0.89226002
0.034703001 -0.1141 0.89052999
0.03616 -0.11395 0.88933998
0.037629001 -0.11385 0.88853002
0.039111 -0.11379 0.88806999
0.040596001 -0.11374 0.88771999
0.042075999 -0.11369 0.88727999
0.043552998 -0.11363 0.88681
0.045028001 -0.11356 0.88633001
0.046489 -0.11347 0.88563001
0.047947999 -0.11338 0.88492
0.049417 -0.11332 0.88441998
0.050873999 -0.11324 0.88378
0.052336 -0.11317 0.88322997
0.053801 -0.11311 0.88277
0.055277001 -0.11307 0.88249999
0.056740999 -0.11302 0.88207
0.058198001 -0.11295 0.88155001
0.059650999 -0.11288 0.88099998
0.061101001 -0.11281 0.88042998
0.062545002 -0.11273 0.87980998
0.063982002 -0.11264 0.87911999
0.065445997 -0.1126 0.87882
0.066909999 -0.11257 0.87853998
0.068389997 -0.11256 0.87847
0.069877997 -0.11256 0.87851
0.071385004 -0.1126 0.87876999
0.072871 -0.1126 0.87878001
0.074391998 -0.11265 0.87919998
0.075939 -0.11274 0.87990999
0.077503003 -0.11285 0.88077003
0.079116002 -0.11303 0.88214999
0.080732003 -0.1132 0.88350999
0.082327001 -0.11334 0.88461
0.083874002 -0.11341 0.88516003
0.085403003 -0.11346 0.88549
0.086864002 -0.11341 0.88511997
0.088303998 -0.11334 0.88455999
0.089706004 -0.11322 0.88362998
0.091119997 -0.11312 0.88286
0.092545003 -0.11304 0.88221997
0.093989 -0.11298 0.88178003
0.095435001 -0.11293 0.88135999
0.096883997 -0.11288 0.88099003
0.098338999 -0.11284 0.88068002
0.099806003 -0.11282 0.88049001
0.10127 -0.11279 0.88024998
0.10275 -0.11278 0.88019001
0.10424 -0.11279 0.88024998
0.10575 -0.11281 0.88041002
0.10726 -0.11283 0.88059998
0.1088 -0.11288 0.88099003
0.11036 -0.11295 0.88152999
0.11191 -0.11302 0.88205999
0.11347 -0.11309 0.88259
0.11506 -0.11318 0.88331997
0.11665 -0.11327 0.88406003
0.1183 -0.11343 0.88524002
0.11993 -0.11355 0.88617998
0.12157 -0.11369 0.88726997
0.12322 -0.11382 0.88835001
0.12488 -0.11396 0.88942999
0.12647 -0.11404 0.89003003
0.12813 -0.11418 0.89111
-0.050662 -0.11499 0.90951997
-0.049095001 -0.11493 0.90898001
-0.047536001 -0.11487 0.90855002
-0.045953002 -0.11475 0.90762001
-0.044349998 -0.11457 0.90621001
-0.042745002 -0.11438 0.90467
-0.04115 -0.1142 0.90323001
-0.039546002 -0.11398 0.90147001
-0.037944 -0.11374 0.89960998
-0.036350001 -0.11351 0.89780998
-0.034754999 -0.11326 0.89582998
-0.033162002 -0.11299 0.8937
-0.031569999 -0.11271 0.89142001
-0.029997 -0.11246 0.88945001
-0.02843 -0.11221 0.88748002
-0.026879 -0.112 0.88582999
-0.025350999 -0.11186 0.88474
-0.023840999 -0.11179 0.88420999
-0.022337001 -0.11175 0.88388002
-0.020839 -0.11173 0.88371003
-0.019339001 -0.1117 0.88344002
-0.017842 -0.11167 0.88323998
-0.016345 -0.11165 0.88304001
-0.014848 -0.11162 0.88279998
-0.013353 -0.11159 0.88262999
-0.011859 -0.11158 0.88251001
-0.010365 -0.11155 0.88230002
-0.0088726003 -0.11154 0.88221002
-0.0073827002 -0.11156 0.88239002
-0.0058928998 -0.1116 0.88269001
-0.0044034999 -0.11167 0.88323998
-0.0029124001 -0.11175 0.88388002
-0.0014195 -0.11186 0.88468999
7.6156997e-05 -0.1119 0.88501
0.0015728 -0.11193 0.88527
0.0030696001 -0.11193 0.88532001
0.0045665 -0.11194 0.88538003
0.0060622999 -0.11192 0.88524002
0.0075627002 -0.11198 0.88568002
0.0090680998 -0.11208 0.88647002
0.010579 -0.11221 0.88748002
0.012097 -0.11237 0.88878
0.013628 -0.11261 0.89068002
0.015171 -0.11289 0.89288002
0.016723 -0.11318 0.89513999
0.018278999 -0.11344 0.89723998
0.019836999 -0.11368 0.89911002
0.021388 -0.11384 0.90039998
0.022924 -0.11391 0.90096998
0.024451001 -0.11393 0.90108001
0.025953 -0.11384 0.90034997
0.02743 -0.11365 0.89885998
0.028882001 -0.11338 0.89677
0.030321 -0.11309 0.89449
0.031746998 -0.11279 0.89209002
0.033183999 -0.11255 0.89016998
0.034628 -0.11235 0.88861001
0.036084998 -0.11221 0.88749999
0.037554 -0.11212 0.88676
0.039037999 -0.11207 0.88641
0.040521 -0.11203 0.88608003
0.042002998 -0.11199 0.88573003
0.043481 -0.11194 0.88533998
0.044953 -0.11187 0.88485003
0.046416 -0.1118 0.88423002
0.047882002 -0.11173 0.88370001
0.049355 -0.11168 0.88331997
0.050817002 -0.11161 0.88278002
0.052282002 -0.11156 0.88231999
0.053746998 -0.1115 0.88187999
0.05522 -0.11146 0.88160002
0.056678001 -0.1114 0.88108999
0.058127001 -0.11132 0.88046998
0.059571002 -0.11124 0.87981999
0.061014 -0.11116 0.87918001
0.062449999 -0.11107 0.87847
0.063883997 -0.11098 0.87778002
0.065339997 -0.11093 0.87739998
0.066795997 -0.11089 0.87704003
0.068264998 -0.11087 0.87686002
0.069742002 -0.11086 0.8768
0.071238004 -0.11088 0.87696999
0.072706997 -0.11086 0.87681001
0.074207999 -0.11089 0.87702
0.075733997 -0.11095 0.87752998
0.077270001 -0.11102 0.87812001
0.078863002 -0.11118 0.87933999
0.080475003 -0.11135 0.88071001
0.082075998 -0.1115 0.88191003
0.083645001 -0.11161 0.88273001
0.085205004 -0.1117 0.88343
0.086698003 -0.1117 0.88343
0.088169999 -0.11167 0.88321
0.089613996 -0.11161 0.88273001
0.091054998 -0.11154 0.88224
0.092508003 -0.1115 0.88186997
0.093962997 -0.11146 0.88152999
0.095416002 -0.11141 0.88119
0.096855998 -0.11135 0.88072997
0.098298997 -0.1113 0.88033003
0.099754997 -0.11127 0.88003999
0.10121 -0.11124 0.87979001
0.10269 -0.11123 0.87971997
0.1042 -0.11125 0.87987
0.10572 -0.11128 0.88011998
0.10724 -0.11131 0.88041002
0.10878 -0.11136 0.88081002
0.11033 -0.11143 0.88134003
0.11188 -0.11149 0.88178003
0.11343 -0.11154 0.88221997
0.115 -0.11162 0.88284999
0.11659 -0.11172 0.8836
0.11825 -0.11188 0.88485998
0.11991 -0.11203 0.88607001
0.1216 -0.1122 0.88744003
0.1233 -0.11239 0.88889998
0.12501 -0.11257 0.89036
0.12664001 -0.11268 0.89122999
0.12830999 -0.11283 0.89240003
-0.052200001 -0.11345 0.90951997
-0.050655998 -0.11344 0.90939999
-0.049091998 -0.11338 0.90891999
-0.047533002 -0.11332 0.90849
-0.045945 -0.11319 0.90745002
-0.044337001 -0.11301 0.90595001
-0.042727999 -0.1128 0.90432
-0.041125 -0.1126 0.90267998
-0.039512999 -0.11236 0.90073001
-0.037907999 -0.11211 0.89876997
-0.036311001 -0.11187 0.89686
-0.034720998 -0.11163 0.89494997
-0.033133 -0.11138 0.89292997
-0.031546 -0.11111 0.89074999
-0.029981 -0.11089 0.88897997
-0.028424 -0.11068 0.88730001
-0.026877001 -0.11049 0.88576001
-0.025350999 -0.11036 0.88476002
-0.023843 -0.11031 0.88429999
-0.02234 -0.11026 0.88396001
-0.020837 -0.11022 0.88362002
-0.019335 -0.11018 0.88325
-0.017836001 -0.11014 0.88293999
-0.016338 -0.1101 0.88265002
-0.01484 -0.11006 0.88231999
-0.013346 -0.11004 0.88214999
-0.011852 -0.11002 0.88196999
-0.010358 -0.10998 0.88169998
-0.0088665001 -0.10997 0.88160002
-0.0073775998 -0.10999 0.88178003
-0.0058888001 -0.11003 0.88207
-0.0044004 -0.1101 0.88262999
-0.0029106 -0.11019 0.88332999
-0.0014185 -0.11027 0.88405001
7.6081997e-05 -0.1103 0.88427001
0.0015715 -0.11034 0.88453001
0.0030673 -0.11035 0.88467002
0.0045627002 -0.11035 0.88464999
0.0060573001 -0.11033 0.88450003
0.0075563001 -0.11039 0.88493001
0.0090595996 -0.11047 0.88564998
0.010567 -0.11058 0.8865
0.012082 -0.11073 0.88771999
0.013612 -0.11097 0.88960999
0.015153 -0.11124 0.89182001
0.016705001 -0.11154 0.89419001
0.018262001 -0.11181 0.89638001
0.019818 -0.11205 0.89823997
0.021365 -0.11219 0.89942002
0.022894001 -0.11224 0.89978999
0.024408 -0.1122 0.89951998
0.025903 -0.11209 0.89859998
0.02737 -0.11188 0.89692003
0.028817 -0.11161 0.89475
0.030252 -0.11133 0.89248002
0.031679001 -0.11104 0.89017999
0.033112999 -0.1108 0.88826001
0.034557 -0.11062 0.88678002
0.036010999 -0.11048 0.88567001
0.03748 -0.1104 0.88501
0.038965002 -0.11036 0.88475001
0.040449999 -0.11033 0.88451999
0.041930001 -0.11029 0.88419002
0.043405 -0.11024 0.88379002
0.044877999 -0.11019 0.88338
0.046342999 -0.11012 0.88283998
0.047816999 -0.11008 0.88249999
0.049299002 -0.11006 0.88231999
0.05077 -0.11002 0.88196999
0.052235 -0.10996 0.88151997
0.053698 -0.1099 0.88107002
0.055160001 -0.10985 0.88063002
0.056614 -0.10978 0.88010001
0.058054999 -0.10969 0.87939
0.059491999 -0.1096 0.87865001
0.060926002 -0.10951 0.87791002
0.06236 -0.10942 0.87720001
0.063786998 -0.10933 0.87643999
0.065240003 -0.10928 0.87606001
0.066685997 -0.10922 0.87559003
0.068139002 -0.10918 0.87524003
0.069597997 -0.10915 0.87498999
0.071076997 -0.10914 0.87498999
0.072529003 -0.1091 0.87465
0.074011996 -0.10911 0.87470001
0.075516999 -0.10915 0.87501001
0.077036999 -0.10921 0.87548
0.078607 -0.10933 0.87647998
0.080211997 -0.1095 0.87783003
0.081808999 -0.10965 0.87904
0.083392002 -0.10978 0.88006002
0.084964998 -0.10989 0.88094997
0.086498 -0.10994 0.88138998
0.087996997 -0.10996 0.88147998
0.089486003 -0.10995 0.88147002
0.090965003 -0.10994 0.88135999
0.092445001 -0.10993 0.88126999
0.093909003 -0.1099 0.88102001
0.095370002 -0.10986 0.88076001
0.096817002 -0.10982 0.88037997
0.098260999 -0.10977 0.87998003
0.099716 -0.10973 0.87970001
0.10117 -0.1097 0.87945002
0.10266 -0.1097 0.87945002
0.10417 -0.10972 0.87961
0.1057 -0.10976 0.87994999
0.10723 -0.10981 0.88033003
0.10878 -0.10987 0.88080001
0.11032 -0.10993 0.88125998
0.11186 -0.10997 0.88160998
0.1134 -0.11002 0.88203001
0.11497 -0.1101 0.88265002
0.11656 -0.11019 0.88340002
0.11825 -0.11037 0.88481998
0.11994 -0.11055 0.88628
0.12166 -0.11075 0.88787001
0.1234 -0.11097 0.88962001
0.12514 -0.11118 0.89129001
0.1268 -0.11131 0.89235002
0.12848 -0.11147 0.89359999
-0.050639998 -0.11186 0.90912002
-0.049073 -0.11179 0.90856999
-0.047506999 -0.11172 0.90798002
-0.045912001 -0.11158 0.90682
-0.044305 -0.11139 0.90530002
-0.042693 -0.11118 0.90357
-0.041087002 -0.11097 0.90183997
-0.039471999 -0.11071 0.89977998
-0.037868001 -0.11047 0.89780998
-0.03627 -0.11023 0.89582998
-0.034685001 -0.11 0.89402002
-0.033105001 -0.10978 0.89217001
-0.03153 -0.10954 0.89028001
-0.029971 -0.10935 0.88870001
-0.028424 -0.10918 0.88730001
-0.02688 -0.109 0.88586003
-0.025354 -0.10888 0.88486999
-0.023846 -0.10882 0.88440001
-0.022342 -0.10878 0.88404
-0.020834999 -0.10871 0.88353002
-0.019331999 -0.10866 0.88308001
-0.017829999 -0.10861 0.88266999
-0.016331 -0.10856 0.88229001
-0.014833 -0.10851 0.88186997
-0.013341 -0.1085 0.88178998
-0.011847 -0.10848 0.88160998
-0.010355 -0.10845 0.88142997
-0.0088636996 -0.10844 0.88133001
-0.0073751998 -0.10846 0.88150001
-0.0058863 -0.10849 0.88169998
-0.0043981001 -0.10854 0.88214999
-0.0029084999 -0.10861 0.88269001
-0.0014173 -0.10869 0.88331997
7.6042998e-05 -0.1087 0.88345999
0.0015698 -0.10873 0.88363999
0.0030642 -0.10874 0.88378
0.0045586 -0.10875 0.88384998
0.0060524 -0.10874 0.88379002
0.0075502 -0.1088 0.88423002
0.0090530999 -0.1089 0.88502002
0.010559 -0.109 0.88586003
0.012072 -0.10914 0.88699001
0.013599 -0.10936 0.88880002
0.01514 -0.10963 0.89099997
0.016689001 -0.10991 0.89328998
0.018243 -0.11018 0.89547998
0.019796001 -0.1104 0.89725
0.021337001 -0.11052 0.89824998
0.02286 -0.11054 0.89841998
0.024363 -0.11048 0.89787
0.025849 -0.11034 0.89674997
0.027310999 -0.11012 0.89498001
0.028754 -0.10985 0.89280999
0.03019 -0.10959 0.89064002
0.031617001 -0.10932 0.88843
0.033050999 -0.10909 0.88660002
0.034495998 -0.10892 0.88521999
0.035946999 -0.10878 0.88410997
0.037411001 -0.10869 0.88338
0.038895998 -0.10867 0.88319999
0.040378999 -0.10864 0.88297999
0.041857 -0.1086 0.88265002
0.043334 -0.10857 0.88234001
0.044808999 -0.10853 0.88202
0.046280999 -0.10848 0.88167
0.047759999 -0.10846 0.88143998
0.049245998 -0.10845 0.88137001
0.050719999 -0.10841 0.8811
0.052186999 -0.10837 0.88072002
0.053642999 -0.1083 0.88018
0.055103 -0.10824 0.87972999
0.056556001 -0.10818 0.87919998
0.057994999 -0.10809 0.87848002
0.059429001 -0.108 0.87773001
0.060856 -0.1079 0.87690002
0.062282 -0.1078 0.87611002
0.063706003 -0.1077 0.87532997
0.065145999 -0.10764 0.87479001
0.066577002 -0.10756 0.87415999
0.068019003 -0.1075 0.87370998
0.069467999 -0.10746 0.87335002
0.070931002 -0.10744 0.87317997
0.072379 -0.1074 0.87285
0.073853001 -0.1074 0.87282002
0.075340003 -0.10741 0.87295997
0.076847002 -0.10746 0.87331003
0.078395002 -0.10755 0.87410998
0.079977997 -0.1077 0.87527001
0.081560001 -0.10783 0.87636
0.083144002 -0.10796 0.87743998
0.084715001 -0.10808 0.87835002
0.086263999 -0.10816 0.87901002
0.087797001 -0.10821 0.87946999
0.089328997 -0.10827 0.87993002
0.090845004 -0.1083 0.88020003
0.092361003 -0.10834 0.88046998
0.093851 -0.10834 0.88047999
0.095329002 -0.10833 0.88037997
0.096785001 -0.10829 0.88009
0.098240003 -0.10825 0.87980002
0.099697001 -0.10822 0.87953001
0.10116 -0.1082 0.87936002
0.10265 -0.1082 0.87936002
0.10417 -0.10823 0.87962002
0.1057 -0.10828 0.87998003
0.10725 -0.10834 0.88053
0.10881 -0.10841 0.88107997
0.11037 -0.10848 0.88160998
0.11189 -0.10851 0.88186997
0.11343 -0.10856 0.88229001
0.11499 -0.10863 0.88282001
0.11657 -0.10871 0.88347
0.11826 -0.10888 0.88490999
0.11997 -0.10907 0.88647002
0.12171 -0.10929 0.88824999
0.12349 -0.10954 0.89028001
0.12526999 -0.10978 0.89222002
0.12695 -0.10994 0.89346999
0.12865999 -0.1101 0.89481002
-0.052186001 -0.11034 0.90926999
-0.050632998 -0.1103 0.90899003
-0.049056001 -0.11021 0.90824997
-0.047476001 -0.11011 0.90740001
-0.045878001 -0.10996 0.90614003
-0.044271 -0.10977 0.90460002
-0.042656001 -0.10955 0.90278
-0.041046999 -0.10933 0.90096003
-0.039432999 -0.10908 0.89889002
-0.037827 -0.10883 0.89686
-0.036231998 -0.10859 0.89490002
-0.034655999 -0.1084 0.89328998
-0.033082001 -0.10819 0.89155
-0.031516999 -0.10799 0.88992
-0.029971 -0.10784 0.88868999
-0.02843 -0.10769 0.88748002
-0.026889 -0.10753 0.88613999
-0.025365001 -0.10742 0.88524002
-0.023853 -0.10735 0.88466001
-0.022344001 -0.10729 0.88413
-0.020833001 -0.10721 0.88344997
-0.019330001 -0.10715 0.88299
-0.017827 -0.10709 0.88249999
-0.016326001 -0.10703 0.88203001
-0.014828 -0.10698 0.88160998
-0.013338 -0.10698 0.88160998
-0.011845 -0.10696 0.88143998
-0.010354 -0.10695 0.88133001
-0.0088635003 -0.10694 0.88129997
-0.0073743002 -0.10695 0.88138998
-0.0058856001 -0.10698 0.88159001
-0.0043970002 -0.10702 0.88195002
-0.0029072999 -0.10707 0.88230997
-0.0014165 -0.10713 0.88283998
7.5980999e-05 -0.10715 0.88296998
0.0015689 -0.10716 0.88308001
0.003062 -0.10717 0.88314003
0.0045554 -0.10718 0.88322002
0.0060481001 -0.10717 0.88316
0.0075448998 -0.10722 0.88361001
0.0090468004 -0.10732 0.88440001
0.010552 -0.10742 0.88523
0.012063 -0.10755 0.88633001
0.013589 -0.10777 0.88810998
0.015126 -0.10803 0.89023
0.016672 -0.10829 0.89241999
0.018224001 -0.10855 0.89450997
0.019773001 -0.10875 0.89617997
0.021305 -0.10884 0.89691001
0.022821 -0.10884 0.89688998
0.024317 -0.10875 0.89616001
0.025797 -0.1086 0.89494002
0.027256001 -0.10838 0.89317
0.028698999 -0.10813 0.89109999
0.030133 -0.10787 0.88896
0.031560998 -0.10762 0.88685
0.032999001 -0.10742 0.88520002
0.034442 -0.10725 0.88384998
0.035893001 -0.10712 0.88275999
0.037358001 -0.10704 0.88212001
0.03884 -0.10702 0.88192999
0.040316999 -0.10698 0.88161999
0.041795999 -0.10695 0.88137001
0.043272 -0.10692 0.88107997
0.044741999 -0.10687 0.88069999
0.046216 -0.10684 0.88042998
0.047702 -0.10683 0.88037997
0.049187999 -0.10683 0.88033003
0.050664999 -0.1068 0.88015002
0.052134 -0.10677 0.87983
0.053583 -0.10669 0.87919003
0.055031002 -0.10661 0.87857002
0.056481998 -0.10655 0.87804002
0.057914 -0.10645 0.87726003
0.059347998 -0.10636 0.87651998
0.060777001 -0.10627 0.87576997
0.062206 -0.10619 0.87505001
0.063629001 -0.10609 0.87427002
0.065067001 -0.10603 0.87373
0.066496 -0.10595 0.87309998
0.067929 -0.10588 0.87255001
0.069367997 -0.10583 0.8721
0.070821002 -0.1058 0.87184
0.072274998 -0.10577 0.87159002
0.073747002 -0.10576 0.87156999
0.075220004 -0.10576 0.87155998
0.076709002 -0.10578 0.87173998
0.078222997 -0.10584 0.87219
0.079777002 -0.10595 0.87307
0.081330001 -0.10605 0.87388998
0.082900003 -0.10616 0.87487
0.084464997 -0.10627 0.87576002
0.086024001 -0.10637 0.87656999
0.087572001 -0.10645 0.87721997
0.089138001 -0.10655 0.87804002
0.090687998 -0.10663 0.87867999
0.092230998 -0.10669 0.87923002
0.093745999 -0.10672 0.87949002
0.095241003 -0.10673 0.87957001
0.096716002 -0.10672 0.87945998
0.098191999 -0.10671 0.87936002
0.099669002 -0.1067 0.87927997
0.10116 -0.1067 0.87927997
0.10265 -0.10671 0.87936002
0.10418 -0.10675 0.87970001
0.10571 -0.1068 0.88007998
0.10728 -0.10687 0.88072997
0.10885 -0.10695 0.88137001
0.11041 -0.10703 0.88199002
0.11194 -0.10706 0.88225001
0.11348 -0.10711 0.88266999
0.11504 -0.10717 0.88319999
0.11661 -0.10724 0.88378
0.1183 -0.10742 0.88521999
0.12002 -0.10762 0.88687003
0.12179 -0.10786 0.88883001
0.12358 -0.10812 0.89095002
0.12538999 -0.10837 0.89306003
0.12710001 -0.10854 0.89449
0.12882 -0.10872 0.89594001
-0.049035002 -0.10863 0.90786999
-0.047447 -0.10851 0.90684998
-0.045837998 -0.10833 0.90535003
-0.044225998 -0.10813 0.90368003
-0.042610001 -0.1079 0.90179998
-0.040998999 -0.10768 0.89991999
-0.039384 -0.10742 0.89776999
-0.037783999 -0.10719 0.89582002
-0.036194 -0.10697 0.89397001
-0.034628998 -0.1068 0.89257002
-0.033064999 -0.10662 0.89109999
-0.031511001 -0.10646 0.88973999
-0.029968999 -0.10633 0.88862002
-0.028434001 -0.1062 0.88758999
-0.026895 -0.10605 0.88634998
-0.025371 -0.10595 0.88542998
-0.023855999 -0.10586 0.88476002
-0.022345999 -0.1058 0.88422
-0.020833001 -0.10571 0.88344997
-0.019330001 -0.10565 0.88299
-0.017827 -0.10559 0.88249999
-0.016326001 -0.10554 0.88203001
-0.014828 -0.10549 0.88160998
-0.013338 -0.10549 0.88160998
-0.011845 -0.10547 0.88143998
-0.010354 -0.10545 0.88133001
-0.0088635003 -0.10545 0.88130999
-0.0073736999 -0.10545 0.88132
-0.0058851 -0.10548 0.88151002
-0.0043962002 -0.10551 0.88178998
-0.0029064 -0.10554 0.88205999
-0.0014159 -0.10559 0.88248998
7.5948999e-05 -0.10561 0.88260001
0.0015679999 -0.10561 0.88261998
0.0030604 -0.10562 0.88268
0.004553 -0.10562 0.88274997
0.0060454002 -0.10563 0.88277
0.0075416998 -0.10568 0.88322997
0.0090429997 -0.10578 0.88402998
0.010547 -0.10588 0.88485003
0.012058 -0.10601 0.88594002
0.01358 -0.1062 0.88755
0.015115 -0.10644 0.88954997
0.016657 -0.10669 0.89161998
0.018203 -0.10691 0.89353001
0.019747 -0.10709 0.89500999
0.021273 -0.10716 0.89555001
0.022781 -0.10713 0.89534003
0.02427 -0.10702 0.89442003
0.025745001 -0.10687 0.89313
0.027201001 -0.10666 0.89138001
0.028643001 -0.10641 0.88935
0.030076999 -0.10617 0.88731003
0.031505998 -0.10593 0.88529998
0.032945 -0.10574 0.88375998
0.034389999 -0.10559 0.88251001
0.035842001 -0.10548 0.88152999
0.037306 -0.1054 0.88089001
0.038784999 -0.10538 0.88068002
0.040259 -0.10534 0.88034999
0.041735999 -0.10531 0.88011998
0.04321 -0.10527 0.87983
0.044677999 -0.10523 0.87945002
0.046151001 -0.1052 0.87918001
0.047634002 -0.10519 0.87911999
0.049113002 -0.10517 0.87900001
0.050588999 -0.10515 0.87880999
0.052051 -0.10511 0.87842
0.053495999 -0.10503 0.87777001
0.054940999 -0.10495 0.87713999
0.056389999 -0.10489 0.87661999
0.057827 -0.10481 0.87594002
0.059269998 -0.10474 0.87537998
0.060704999 -0.10466 0.87472999
0.062139001 -0.10459 0.87410003
0.063565999 -0.1045 0.87339997
0.065002002 -0.10444 0.87286001
0.066430002 -0.10437 0.87222999
0.067860998 -0.1043 0.87168002
0.069298998 -0.10425 0.87123001
0.070750996 -0.10421 0.87097001
0.072209999 -0.10419 0.87080997
0.073682003 -0.10419 0.87080002
0.075153001 -0.10419 0.87080002
0.076641001 -0.10421 0.87097001
0.078138001 -0.10425 0.87124997
0.079659998 -0.10431 0.87178999
0.081184998 -0.10438 0.87233001
0.082726002 -0.10446 0.87303001
0.084261999 -0.10454 0.87365001
0.085816003 -0.10463 0.87444001
0.087366 -0.10472 0.87515998
0.088936001 -0.10482 0.87606001
0.090503 -0.10492 0.87687999
0.092061996 -0.10501 0.87761998
0.093594998 -0.10506 0.87808001
0.095114999 -0.1051 0.87840998
0.096617997 -0.10512 0.87857002
0.098122999 -0.10514 0.87875003
0.099629 -0.10517 0.87892997
0.10114 -0.10519 0.87910998
0.10264 -0.10521 0.87927997
0.10419 -0.10527 0.87977999
0.10573 -0.10532 0.88024002
0.10731 -0.10541 0.88099003
0.10889 -0.1055 0.88173002
0.11047 -0.10559 0.88244998
0.112 -0.10562 0.88274002
0.11355 -0.10567 0.88316
0.11512 -0.10574 0.88375998
0.1167 -0.10582 0.88441998
0.1184 -0.10601 0.88595003
0.12013 -0.10621 0.88769001
0.12191 -0.10646 0.88972002
0.12371 -0.10671 0.89184999
0.12552001 -0.10697 0.89397001
0.12724 -0.10715 0.8955
0.12898999 -0.10735 0.89714998
-0.045786001 -0.10667 0.90432
-0.044171002 -0.10646 0.90254998
-0.042553999 -0.10624 0.90063
-0.040947001 -0.10602 0.89877999
-0.039342001 -0.10579 0.89683002
-0.037748002 -0.10557 0.89497
-0.036166999 -0.10537 0.89331001
-0.03461 -0.10523 0.89209002
-0.033055 -0.10508 0.89081001
-0.031504001 -0.10493 0.88955998
-0.029966 -0.10481 0.88854003
-0.028432 -0.10469 0.88753998
-0.026896 -0.10456 0.88638002
-0.025371 -0.10445 0.88545001
-0.023855999 -0.10437 0.88476998
-0.022345999 -0.1043 0.88422
-0.020833001 -0.10421 0.88344997
-0.019330001 -0.10416 0.88299
-0.017827 -0.1041 0.88249999
-0.016326001 -0.10404 0.88203001
-0.014828 -0.10399 0.88160998
-0.013338 -0.10399 0.88160998
-0.011845 -0.10397 0.88145
-0.010354 -0.10396 0.88134998
-0.0088638002 -0.10396 0.88134003
-0.0073739998 -0.10396 0.88134003
-0.0058853002 -0.10398 0.88154
-0.0043958998 -0.10401 0.88173002
-0.0029058999 -0.10403 0.88191003
-0.0014156 -0.10407 0.88224
7.5917e-05 -0.10407 0.88225001
0.0015672999 -0.10406 0.88217998
0.0030588 -0.10407 0.88224
0.0045506 -0.10407 0.88230002
0.0060429 -0.10409 0.88239002
0.0075384998 -0.10414 0.88284999
0.0090394001 -0.10424 0.88367999
0.010544 -0.10434 0.88459003
0.012055 -0.10447 0.88568002
0.013575 -0.10465 0.8872
0.015107 -0.10488 0.88910002
0.016647 -0.10511 0.89107001
0.018186999 -0.1053 0.89270002
0.019724 -0.10545 0.89398003
0.021241 -0.10548 0.89424002
0.022743 -0.10544 0.89384001
0.024222 -0.1053 0.89266998
0.025691999 -0.10514 0.89129001
0.027143 -0.10492 0.88947999
0.028585 -0.10469 0.88753998
0.03002 -0.10446 0.88560998
0.031454999 -0.10426 0.88387001
0.032898001 -0.1041 0.88249999
0.034350999 -0.10398 0.88151002
0.035806 -0.10388 0.88063002
0.037266999 -0.1038 0.87998998
0.038741998 -0.10377 0.87968999
0.040213 -0.10373 0.87935001
0.041680999 -0.10368 0.87895
0.04315 -0.10364 0.87858999
0.044611 -0.10358 0.87812001
0.046075001 -0.10354 0.87773001
0.047545001 -0.10351 0.87747997
0.049017001 -0.10348 0.87726998
0.050489999 -0.10346 0.87709999
0.051955 -0.10343 0.8768
0.053403001 -0.10336 0.87624002
0.054850001 -0.10329 0.87568998
0.056306999 -0.10325 0.87532997
0.057753 -0.10319 0.87480998
0.059202 -0.10314 0.87436998
0.060642 -0.10308 0.87383002
0.062082 -0.10301 0.87329
0.063514002 -0.10294 0.87269002
0.064951003 -0.10288 0.87216997
0.066384003 -0.10282 0.87163001
0.067822002 -0.10276 0.87116998
0.069265999 -0.10272 0.87080997
0.070716999 -0.10269 0.87054998
0.072182 -0.10268 0.87046999
0.073654003 -0.10268 0.87046999
0.075126 -0.10268 0.87046999
0.076610997 -0.1027 0.87063998
0.078098997 -0.10272 0.87080997
0.079603001 -0.10276 0.87115997
0.081109002 -0.1028 0.87151998
0.082625002 -0.10286 0.87197
0.084132999 -0.1029 0.87232
0.085657999 -0.10296 0.87282997
0.087187 -0.10302 0.87335998
0.088744 -0.10311 0.87415999
0.090308003 -0.10321 0.87498999
0.091865003 -0.1033 0.87573999
0.093420997 -0.10338 0.87645
0.094959997 -0.10345 0.87696999
0.096490003 -0.1035 0.87740999
0.098033004 -0.10356 0.87794
0.099578001 -0.10362 0.87848002
0.10111 -0.10367 0.87884998
0.10263 -0.10371 0.87919998
0.10419 -0.10378 0.87977999
0.10573 -0.10383 0.88024002
0.10732 -0.10393 0.88107002
0.10891 -0.10403 0.88191003
0.11051 -0.10413 0.88274002
0.11206 -0.10418 0.88318998
0.11363 -0.10425 0.88379002
0.11521 -0.10433 0.88448
0.11682 -0.10443 0.88530999
0.11853 -0.10462 0.88692999
0.12025 -0.10482 0.88858998
0.12201 -0.10504 0.89046001
0.1238 -0.10528 0.89251
0.12558 -0.10551 0.89446002
0.12732001 -0.1057 0.89607
0.12909 -0.10591 0.89782
-0.044114001 -0.1048 0.90139002
-0.042495999 -0.10457 0.89938998
-0.040895 -0.10436 0.89762998
-0.039303001 -0.10416 0.89591998
-0.037716001 -0.10396 0.89421999
-0.036145002 -0.10379 0.89275002
-0.034595001 -0.10367 0.89170998
-0.033047002 -0.10355 0.89061999
-0.031502999 -0.10342 0.88953
-0.029967999 -0.10331 0.88861001
-0.028431 -0.10319 0.88753003
-0.026895 -0.10305 0.88634998
-0.02537 -0.10294 0.88542002
-0.023851 -0.10284 0.88459003
-0.022342 -0.10278 0.88405001
-0.020831 -0.1027 0.88336998
-0.019328 -0.10265 0.8829
-0.017825 -0.10259 0.88242
-0.016326001 -0.10255 0.88203001
-0.014828 -0.1025 0.88160998
-0.013338 -0.1025 0.88160998
-0.011846 -0.10249 0.88152999
-0.010356 -0.10249 0.88152999
-0.0088657001 -0.10249 0.88152999
-0.0073760999 -0.1025 0.88160998
-0.0058875 -0.10253 0.88187999
-0.0043972 -0.10254 0.88198
-0.0029062 -0.10254 0.88200003
-0.0014155 -0.10257 0.88222998
7.591e-05 -0.10256 0.88214999
0.0015668001 -0.10253 0.88191998
0.0030577001 -0.10253 0.88190001
0.0045492002 -0.10255 0.88203001
0.0060415999 -0.10257 0.88221002
0.0075376998 -0.10263 0.88275999
0.0090402002 -0.10275 0.88375002
0.010547 -0.10287 0.88485003
0.012059 -0.10301 0.88603997
0.013581 -0.10319 0.88756001
0.015111 -0.10339 0.88929999
0.016646 -0.10359 0.89100999
0.018177999 -0.10374 0.89227003
0.019707 -0.10384 0.89319003
0.021214001 -0.10383 0.89308
0.022707 -0.10375 0.89240998
0.024178 -0.1036 0.89104003
0.025642 -0.10342 0.88958001
0.02709 -0.10321 0.88775003
0.028534001 -0.10301 0.88598001
0.029973 -0.1028 0.88423997
0.031413 -0.10262 0.88268
0.032864001 -0.1025 0.88158
0.034322001 -0.1024 0.88076001
0.035776 -0.1023 0.87989998
0.037237 -0.10223 0.87927002
0.038709 -0.10219 0.87895
0.040171999 -0.10213 0.87844002
0.041634001 -0.10207 0.87795001
0.043095998 -0.10202 0.8775
0.044546001 -0.10195 0.87686002
0.045999002 -0.10188 0.87628001
0.047460001 -0.10184 0.87590998
0.048923001 -0.1018 0.87559003
0.050393999 -0.10178 0.87542999
0.051858 -0.10175 0.87515998
0.053305 -0.10169 0.87462002
0.054754 -0.10163 0.87415999
0.056209002 -0.10159 0.87379998
0.057659 -0.10154 0.87339002
0.059117999 -0.10151 0.87313002
0.060568999 -0.10147 0.87277001
0.062019002 -0.10143 0.87241
0.063461997 -0.10138 0.87198001
0.064905003 -0.10133 0.87155002
0.066349998 -0.10129 0.87118
0.067800999 -0.10125 0.87089998
0.069251999 -0.10122 0.87063998
0.070711002 -0.1012 0.87046999
0.072182 -0.1012 0.87046999
0.073654003 -0.1012 0.87046999
0.075126 -0.1012 0.87046999
0.076604001 -0.10121 0.87054998
0.078083001 -0.10122 0.87063998
0.079571001 -0.10124 0.87080997
0.081059001 -0.10126 0.87098002
0.082556002 -0.10129 0.87124002
0.084045999 -0.10131 0.87142003
0.085543998 -0.10134 0.87167001
0.087052003 -0.10138 0.87202001
0.088588998 -0.10146 0.87264001
0.090131 -0.10153 0.87327999
0.091683 -0.10161 0.87400001
0.093245998 -0.10171 0.87480998
0.094792999 -0.10178 0.87542999
0.096341997 -0.10185 0.87606001
0.097902998 -0.10194 0.87677997
0.099468 -0.10202 0.87751001
0.10102 -0.10209 0.87808001
0.10256 -0.10215 0.87861001
0.10413 -0.10223 0.87928998
0.10569 -0.1023 0.87990999
0.10729 -0.10241 0.88081998
0.1089 -0.10252 0.88182998
0.11053 -0.10265 0.8829
0.11211 -0.10273 0.88362002
0.11371 -0.10282 0.88440001
0.11532 -0.10293 0.88528001
0.11694 -0.10303 0.88621998
0.11864 -0.10322 0.88777
0.12035 -0.10339 0.88928002
0.12208 -0.10359 0.89095998
0.12385 -0.10381 0.89288002
0.12561999 -0.10402 0.89472997
0.12736 -0.10421 0.89635003
0.12916 -0.10444 0.89828002
-0.042449001 -0.10293 0.89840001
-0.040853001 -0.10273 0.89671999
-0.039267 -0.10255 0.89511001
-0.037686002 -0.10237 0.89350998
-0.036127001 -0.10223 0.89230001
-0.034582 -0.10212 0.89137
-0.033038002 -0.10201 0.89036
-0.031500001 -0.1019 0.88942999
-0.029967999 -0.1018 0.88859999
-0.028427999 -0.10167 0.88742
-0.026893999 -0.10154 0.88631999
-0.025369 -0.10144 0.88538003
-0.023848001 -0.10133 0.88448
-0.022338999 -0.10127 0.88395
-0.020831 -0.1012 0.88335001
-0.019328 -0.10115 0.8829
-0.017825 -0.1011 0.88240999
-0.016326001 -0.10105 0.88203001
-0.014828 -0.101 0.88160998
-0.013338 -0.101 0.88160998
-0.011847 -0.101 0.88160998
-0.010358 -0.10101 0.88169003
-0.0088683004 -0.10102 0.88178003
-0.0073791002 -0.10104 0.88195002
-0.0058904001 -0.10108 0.88230002
-0.0043994002 -0.1011 0.88240999
-0.0029074 -0.10109 0.88234001
-0.0014158 -0.10109 0.88239998
7.5889999e-05 -0.10107 0.88221002
0.0015667001 -0.10104 0.88187999
0.0030576 -0.10103 0.88187999
0.0045492998 -0.10105 0.88203001
0.0060427999 -0.10109 0.88239002
0.0075400001 -0.10117 0.88303
0.0090439003 -0.10129 0.88410997
0.010553 -0.10143 0.88530999
0.012067 -0.10158 0.88660002
0.01359 -0.10175 0.88814998
0.015119 -0.10194 0.88980001
0.016650001 -0.10211 0.89122999
0.018175 -0.10221 0.89210999
0.019695001 -0.10227 0.89265001
0.021191999 -0.10221 0.89217001
0.022675 -0.1021 0.89115
0.024141001 -0.10193 0.88967001
0.025599999 -0.10175 0.88809001
0.027047001 -0.10154 0.88633001
0.028492 -0.10135 0.88467002
0.029935 -0.10118 0.88312
0.031380001 -0.10102 0.88177001
0.032836001 -0.10092 0.88084
0.034295 -0.10083 0.88006002
0.035751 -0.10074 0.87927997
0.037211001 -0.10067 0.87865001
0.038674999 -0.10061 0.87817001
0.040130999 -0.10054 0.87756002
0.041590001 -0.10048 0.87704003
0.043042999 -0.10041 0.87642998
0.044487 -0.10033 0.87568998
0.045933001 -0.10025 0.87502003
0.047386002 -0.1002 0.87454998
0.048842002 -0.10015 0.87414002
0.050315 -0.10014 0.87405998
0.051777001 -0.10011 0.87379998
0.053227998 -0.10006 0.87335998
0.054676 -0.10001 0.87291002
0.056129001 -0.099967003 0.87256002
0.057576999 -0.099919997 0.87215
0.059039999 -0.099900998 0.87198001
0.060501002 -0.099880002 0.87180001
0.061960999 -0.099857002 0.87159997
0.063415997 -0.099826999 0.87133998
0.06487 -0.099798001 0.87107998
0.066327997 -0.099776998 0.87089998
0.067786999 -0.099757001 0.87072003
0.069245003 -0.099737003 0.87054998
0.070711002 -0.099728003 0.87046999
0.072182 -0.099728003 0.87046999
0.073654003 -0.099728003 0.87046999
0.075126 -0.099728003 0.87046999
0.076596998 -0.099728003 0.87046999
0.078069001 -0.099728003 0.87046999
0.079547003 -0.099737003 0.87054998
0.081019998 -0.099738002 0.87055999
0.082498997 -0.099747002 0.87063998
0.083979003 -0.099757001 0.87072003
0.085467003 -0.099775001 0.87089002
0.086957 -0.099795997 0.87106001
0.088473 -0.099844001 0.87149
0.089992002 -0.099895999 0.87194002
0.091522999 -0.099958003 0.87247998
0.093073003 -0.10004 0.87317997
0.094618 -0.10011 0.87382001
0.096175 -0.10019 0.87453997
0.097744003 -0.10029 0.87535
0.099317998 -0.10038 0.87617999
0.10088 -0.10046 0.87684
0.10243 -0.10053 0.87747002
0.10401 -0.10062 0.87823999
0.10559 -0.10071 0.87904
0.10719 -0.10082 0.88003999
0.10882 -0.10095 0.88112998
0.11046 -0.10109 0.88238001
0.11208 -0.10121 0.88336998
0.1137 -0.10132 0.88436002
0.11536 -0.10146 0.88560998
0.11701 -0.1016 0.88681
0.11873 -0.10179 0.88845998
0.12043 -0.10195 0.88986999
0.12213 -0.10212 0.89134002
0.12386 -0.1023 0.89296001
0.1256 -0.10249 0.89459997
0.12735 -0.10268 0.89622998
0.12916 -0.10291 0.89828002
-0.040803999 -0.10109 0.89564002
-0.039228 -0.10093 0.89421999
-0.037661999 -0.10079 0.89292997
-0.036114 -0.10068 0.89197999
-0.034575 -0.10059 0.89118999
-0.033034999 -0.10049 0.89028001
-0.031500001 -0.10039 0.88945001
-0.029967999 -0.1003 0.88861001
-0.028427999 -0.10017 0.88743001
-0.026893999 -0.10004 0.88631999
-0.025369 -0.099933997 0.88537002
-0.023848001 -0.099831998 0.88445997
-0.022338999 -0.099771999 0.88393998
-0.020831 -0.099705003 0.88334
-0.019327 -0.099653997 0.88288999
-0.017825 -0.099600002 0.88240999
-0.016326001 -0.099558003 0.88203001
-0.014828 -0.099509999 0.88160998
-0.013339 -0.099518999 0.88169003
-0.01185 -0.099528998 0.88178003
-0.010361 -0.099549003 0.88195002
-0.0088718003 -0.099569 0.88213998
-0.0073827999 -0.099598996 0.88240999
-0.0058928998 -0.099630997 0.88268
-0.0044013001 -0.099643998 0.88279998
-0.0029086 -0.099633999 0.88271999
-0.0014163 -0.099629998 0.88266999
7.5937998e-05 -0.099597998 0.88239002
0.0015670001 -0.099559002 0.88204002
0.0030582 -0.099556997 0.88203001
0.0045502 -0.099577002 0.88221002
0.0060447999 -0.099629998 0.88266999
0.0075440998 -0.099722996 0.88349998
0.0090496996 -0.099855997 0.88467997
0.010561 -0.1 0.88597
0.012077 -0.10016 0.88735002
0.0136 -0.10032 0.88881999
0.015126 -0.10048 0.89020997
0.016651999 -0.10061 0.89134002
0.018169001 -0.10066 0.89183003
0.019680001 -0.10068 0.89197999
0.02117 -0.1006 0.89122999
0.022646001 -0.10046 0.89002001
0.024106 -0.10027 0.88836002
0.025559001 -0.10008 0.88668001
0.027001999 -0.099876001 0.88485003
0.028448001 -0.099699996 0.88330001
0.029896 -0.099547997 0.88195002
0.031348001 -0.099427 0.88088
0.032807 -0.099335998 0.88006997
0.034271002 -0.099266 0.87945002
0.035726 -0.099179 0.87867999
0.037182 -0.099097997 0.87796998
0.038640998 -0.099032998 0.87739003
0.040095001 -0.098962002 0.87676001
0.041545 -0.098885 0.87607998
0.042994998 -0.098814003 0.87545002
0.044442002 -0.098739997 0.87480003
0.045882002 -0.098656997 0.87405998
0.047331002 -0.098596998 0.87352002
0.048788 -0.098558001 0.87317997
0.050255001 -0.098539002 0.87300998
0.051711001 -0.098502003 0.87268001
0.053164002 -0.098461002 0.87232
0.054609999 -0.098408997 0.87186003
0.056056 -0.098360002 0.87142998
0.057507001 -0.098321997 0.87108999
0.058968 -0.098302998 0.87092
0.060428999 -0.098283999 0.87075001
0.061894 -0.098273002 0.87064999
0.063353002 -0.098254003 0.87048
0.064818002 -0.098242998 0.87039
0.066289999 -0.098242998 0.87039
0.067760997 -0.098242998 0.87039
0.069233 -0.098243997 0.87040001
0.070711002 -0.098252997 0.87046999
0.072182 -0.098252997 0.87046999
0.073654003 -0.098252997 0.87046999
0.075126 -0.098252997 0.87046999
0.076590002 -0.098243997 0.87040001
0.078061 -0.098242998 0.87039
0.079531997 -0.098242998 0.87039
0.080989003 -0.098224998 0.87023002
0.082451999 -0.098214999 0.87014002
0.083921999 -0.098214 0.87013
0.085392997 -0.098214 0.87013
0.086865 -0.098214999 0.87014002
0.088370003 -0.098252997 0.87048
0.089876004 -0.098291002 0.87081999
0.091394 -0.098339997 0.87124997
0.092932001 -0.098408997 0.87186003
0.094474003 -0.098480001 0.87248999
0.096027002 -0.098559998 0.8732
0.097592004 -0.098650001 0.87399
0.099161997 -0.098742001 0.87480998
0.10072 -0.098815002 0.87545002
0.10228 -0.098894998 0.87616998
0.10385 -0.098984003 0.87695003
0.10544 -0.099085003 0.87785
0.10706 -0.099207997 0.87893999
0.10869 -0.099343002 0.88012999
0.11035 -0.099495001 0.88147998
0.11201 -0.099647 0.88283002
0.11367 -0.099790998 0.88410997
0.11536 -0.099964999 0.88564003
0.11707 -0.10014 0.8872
0.11881 -0.10035 0.88902003
0.12047 -0.10048 0.89016002
0.12213 -0.10061 0.89133
0.12383 -0.10076 0.89271998
0.12555 -0.10093 0.89419001
0.12729 -0.10112 0.89583999
0.12913001 -0.10137 0.89809
-0.039198998 -0.099344999 0.89357001
-0.037645999 -0.099234 0.89257002
-0.036107 -0.099151 0.89183003
-0.034577999 -0.099087998 0.89126003
-0.033041 -0.098996997 0.89043999
-0.031507 -0.098907001 0.88963002
-0.029978 -0.098824002 0.88889003
-0.028438 -0.098693997 0.88771999
-0.026900001 -0.098560996 0.88652003
-0.025372 -0.098445997 0.88547999
-0.02385 -0.098343 0.88455999
-0.022338999 -0.098274998 0.88395
-0.020833001 -0.098218001 0.88343
-0.019329 -0.098168001 0.88297999
-0.017827 -0.098113999 0.88249999
-0.016328 -0.098072 0.88212001
-0.01483 -0.098025002 0.88169003
-0.01334 -0.098034002 0.88178003
-0.011851 -0.098044999 0.88187999
-0.010363 -0.098076001 0.88214999
-0.0088748001 -0.098107003 0.88243002
-0.0073861 -0.098148003 0.88279998
-0.005895 -0.098169997 0.88300002
-0.0044032 -0.098190002 0.88318998
-0.0029098999 -0.098181002 0.88309997
-0.0014167 -0.098168001 0.88297999
7.5966003e-05 -0.098126002 0.88261002
0.0015673999 -0.098085001 0.88224
0.0030588 -0.098082997 0.88221997
0.0045512002 -0.098103002 0.88239998
0.0060462002 -0.098158002 0.88288999
0.0075467001 -0.09826 0.88380998
0.0090538003 -0.098401003 0.88507998
0.010566 -0.098554 0.88644999
0.012084 -0.098707996 0.88783997
0.013607 -0.098871 0.88929999
